# .PCD v0.7 - Point Cloud Data file format
VERSION 0.7
FIELDS x y z rgba
SIZE 8 8 8 4
TYPE F F F U
COUNT 1 1 1 1
WIDTH 1109
HEIGHT 1
VIEWPOINT 0 0 0 1 0 0 0
POINTS 1109
DATA ascii
0.46757047 -0.23834928 -1.9254902 12758929
0.47093429 -0.23834928 -1.9254902 12693391
0.47429811 -0.23834928 -1.9254902 12562319
0.47766192 -0.23834928 -1.9254902 11969412
0.47642122 -0.23606773 -1.9070588 11903104
0.47975283 -0.23606773 -1.9070588 11837826
0.48308445 -0.23606773 -1.9070588 11837568
0.48171495 -0.23378617 -1.8886275 11968900
0.48501436 -0.23378617 -1.8886275 12034436
0.48831378 -0.23378617 -1.8886275 11968643
0.4916132 -0.23378617 -1.8886275 11968387
0.4900827 -0.23150462 -1.8701961 11837569
0.49334991 -0.23150462 -1.8701961 11837312
0.49661713 -0.23150462 -1.8701961 11837312
0.49495783 -0.22922307 -1.8517647 11837313
0.49819285 -0.22922307 -1.8517647 11837314
0.50142787 -0.22922307 -1.8517647 11837569
0.49963977 -0.22694152 -1.8333333 11837056
0.50284259 -0.22694152 -1.8333333 11771519
0.50604541 -0.22694152 -1.8333333 11837313
0.50924823 -0.22694152 -1.8333333 11639677
0.50729913 -0.22465997 -1.814902 10982262
-0.3398948 -0.18550508 -1.52 14465603
-0.34132871 -0.1877545 -1.5384314 14662716
-0.33864108 -0.1877545 -1.5384314 14728763
-0.33595345 -0.1877545 -1.5384314 14860603
-0.33326582 -0.1877545 -1.5384314 14860603
-0.33453873 -0.19000391 -1.5568627 14991932
-0.3318189 -0.19000391 -1.5568627 14992445
-0.32909908 -0.19000391 -1.5568627 14992445
-0.32637925 -0.19000391 -1.5568627 15058494
-0.32365942 -0.19000391 -1.5568627 14992958
-0.3209396 -0.19000391 -1.5568627 14992957
-0.32198711 -0.19225333 -1.5752941 15058751
-0.31923508 -0.19225333 -1.5752941 15124288
-0.31648305 -0.19225333 -1.5752941 15058495
-0.31373103 -0.19225333 -1.5752941 15058495
-0.310979 -0.19225333 -1.5752941 15124545
-0.30822697 -0.19225333 -1.5752941 15124544
-0.30547495 -0.19225333 -1.5752941 15058752
-0.30272292 -0.19225333 -1.5752941 15124546
-0.29997089 -0.19225333 -1.5752941 15124546
-0.29721887 -0.19225333 -1.5752941 15058753
-0.29791218 -0.19450275 -1.5937255 15124546
-0.29512796 -0.19450275 -1.5937255 15124546
-0.29234373 -0.19450275 -1.5937255 15124290
-0.2895595 -0.19450275 -1.5937255 15124290
-0.28677528 -0.19450275 -1.5937255 15058497
-0.28399105 -0.19450275 -1.5937255 15058496
-0.28120683 -0.19450275 -1.5937255 15124290
-0.2784226 -0.19450275 -1.5937255 15058497
-0.27563837 -0.19450275 -1.5937255 15058496
-0.27285415 -0.19450275 -1.5937255 15058496
-0.27006992 -0.19450275 -1.5937255 15057984
-0.2672857 -0.19450275 -1.5937255 15058496
-0.26450147 -0.19450275 -1.5937255 14926397
-0.26171724 -0.19450275 -1.5937255 14992448
-0.25893302 -0.19450275 -1.5937255 14992447
-0.25614879 -0.19450275 -1.5937255 14860604
-0.25336457 -0.19450275 -1.5937255 14926397
-0.25058034 -0.19450275 -1.5937255 14860088
-0.24779611 -0.19450275 -1.5937255 14794296
-0.24501189 -0.19450275 -1.5937255 14794294
-0.24222766 -0.19450275 -1.5937255 14596914
-0.23944344 -0.19450275 -1.5937255 14596658
-0.23665921 -0.19450275 -1.5937255 14596658
-0.23387498 -0.19450275 -1.5937255 14267435
-0.2284182 -0.19225333 -1.5752941 14070057
-0.22566618 -0.19225333 -1.5752941 14070057
-0.22291415 -0.19225333 -1.5752941 14003494
-0.22016212 -0.19225333 -1.5752941 13608482
-0.2174101 -0.19225333 -1.5752941 13410846
-0.21465807 -0.19225333 -1.5752941 13015580
-0.21190604 -0.19225333 -1.5752941 12752667
-0.20670686 -0.19000391 -1.5568627 12094487
-0.20398703 -0.19000391 -1.5568627 12028439
-0.2012672 -0.19000391 -1.5568627 11304981
-0.19619682 -0.1877545 -1.5384314 10384149
-0.19350919 -0.1877545 -1.5384314 9660692
-0.19082156 -0.1877545 -1.5384314 9660432
-0.18587997 -0.18550508 -1.52 5848328
-0.18322454 -0.18550508 -1.52 12225552
-0.18056911 -0.18550508 -1.52 10383625
-0.17791369 -0.18550508 -1.52 13015317
-0.17525826 -0.18550508 -1.52 11304712
-0.17260283 -0.18550508 -1.52 12883987
-0.1699474 -0.18550508 -1.52 11370508
-0.16729197 -0.18550508 -1.52 11436044
-0.16463655 -0.18550508 -1.52 12028177
-0.16394528 -0.1877545 -1.5384314 11896848
-0.16125766 -0.1877545 -1.5384314 12489235
-0.15857003 -0.1877545 -1.5384314 12686357
-0.15774997 -0.19000391 -1.5568627 12686613
-0.15503014 -0.19000391 -1.5568627 12686613
-0.15231032 -0.19000391 -1.5568627 12686613
-0.14959049 -0.19000391 -1.5568627 12818197
-0.14860943 -0.19225333 -1.5752941 12818453
-0.14585741 -0.19225333 -1.5752941 13015318
-0.14310538 -0.19225333 -1.5752941 12884246
-0.14035335 -0.19225333 -1.5752941 13147672
-0.13760133 -0.19225333 -1.5752941 13147672
-0.13642707 -0.19450275 -1.5937255 13344538
-0.13364285 -0.19450275 -1.5937255 13344794
-0.13085862 -0.19450275 -1.5937255 13608477
-0.1280744 -0.19450275 -1.5937255 13608223
-0.12529017 -0.19450275 -1.5937255 13872162
-0.12392272 -0.19675216 -1.6121569 13674530
-0.1211063 -0.19675216 -1.6121569 14135591
-0.11828987 -0.19675216 -1.6121569 14267434
-0.11547344 -0.19675216 -1.6121569 14201642
-0.113945 -0.19900158 -1.6305882 14399534
-0.11109637 -0.19900158 -1.6305882 14333741
-0.10824775 -0.19900158 -1.6305882 14465584
-0.10539912 -0.19900158 -1.6305882 14596914
-0.1025505 -0.19900158 -1.6305882 14728501
-0.10082885 -0.201251 -1.6490196 14662965
-0.09794803 -0.201251 -1.6490196 14860601
-0.095067205 -0.201251 -1.6490196 14926394
-0.092186381 -0.201251 -1.6490196 14992188
-0.089305556 -0.201251 -1.6490196 14992188
-0.086424732 -0.201251 -1.6490196 15058496
-0.083543908 -0.201251 -1.6490196 15058496
-0.080663083 -0.201251 -1.6490196 14992447
-0.077782259 -0.201251 -1.6490196 14992961
-0.074901434 -0.201251 -1.6490196 15057984
-0.072825597 -0.20350041 -1.667451 15057984
-0.069912573 -0.20350041 -1.667451 14926656
-0.066999549 -0.20350041 -1.667451 14926655
-0.064086525 -0.20350041 -1.667451 14926399
-0.061173501 -0.20350041 -1.667451 14794556
-0.057616488 -0.201251 -1.6490196 14860605
-0.054735664 -0.201251 -1.6490196 14597176
-0.051854839 -0.201251 -1.6490196 14662712
-0.048974015 -0.201251 -1.6490196 14465074
-0.04609319 -0.201251 -1.6490196 14399538
-0.043212366 -0.201251 -1.6490196 14399026
-0.040331542 -0.201251 -1.6490196 14135595
-0.037450717 -0.201251 -1.6490196 14135338
-0.034569893 -0.201251 -1.6490196 13806118
-0.031689068 -0.201251 -1.6490196 13674275
-0.028808244 -0.201251 -1.6490196 13147676
-0.02592742 -0.201251 -1.6490196 13213213
-0.022788999 -0.19900158 -1.6305882 12752409
-0.019940375 -0.19900158 -1.6305882 12093972
-0.01709175 -0.19900158 -1.6305882 12094228
-0.014243125 -0.19900158 -1.6305882 11830548
-0.011265702 -0.19675216 -1.6121569 11238930
-0.0084492764 -0.19675216 -1.6121569 10975763
-0.0056328509 -0.19675216 -1.6121569 10252306
-0.002784226 -0.19450275 -1.5937255 9594643
-1.9984014e-15 -0.19450275 -1.5937255 9134611
0.002784226 -0.19450275 -1.5937255 8477459
0.0055040531 -0.19225333 -1.5752941 6833942
0.0081594812 -0.19000391 -1.5568627 3220246
0.19258568 -0.21699691 -1.7780392 9996137
0.2017776 -0.22374516 -1.8333333 10390641
0.20704118 -0.22599458 -1.8517647 9733482
0.21446213 -0.23049341 -1.8886275 11837828
0.21776155 -0.23049341 -1.8886275 11969158
0.22321833 -0.23274283 -1.9070588 11508606
0.22654995 -0.23274283 -1.9070588 10192748
0.22988157 -0.23274283 -1.9070588 8548187
0.23546715 -0.23499224 -1.9254902 6575175
0.23883096 -0.23499224 -1.9254902 5852482
0.24219478 -0.23499224 -1.9254902 6575684
0.24790916 -0.23724166 -1.9439216 8088659
0.25130517 -0.23724166 -1.9439216 5918783
0.25470119 -0.23724166 -1.9439216 4208945
0.26054436 -0.23949108 -1.9623529 4208944
0.26397258 -0.23949108 -1.9623529 4076843
0.26740079 -0.23949108 -1.9623529 4537648
0.27082901 -0.23949108 -1.9623529 5260600
0.27425722 -0.23949108 -1.9623529 6049600
0.27768544 -0.23949108 -1.9623529 6377794
0.28111365 -0.23949108 -1.9623529 6640965
0.28454187 -0.23949108 -1.9623529 5588795
0.28797008 -0.23949108 -1.9623529 4668465
0.29413525 -0.24174049 -1.9807843 5983293
0.29759567 -0.24174049 -1.9807843 5983551
0.30105608 -0.24174049 -1.9807843 5260089
0.3045165 -0.24174049 -1.9807843 5589308
0.30797691 -0.24174049 -1.9807843 6641478
0.31143733 -0.24174049 -1.9807843 9798501
0.31489774 -0.24174049 -1.9807843 10456686
0.31835816 -0.24174049 -1.9807843 8088660
0.32181857 -0.24174049 -1.9807843 6181184
0.32527899 -0.24174049 -1.9807843 4668722
0.33179835 -0.24398991 -1.9992157 4602929
0.33529096 -0.24398991 -1.9992157 4602929
0.33878358 -0.24398991 -1.9992157 4602672
0.34227619 -0.24398991 -1.9992157 4602929
0.34258106 -0.24174049 -1.9807843 5128758
0.34604148 -0.24174049 -1.9807843 5325879
0.34950189 -0.24174049 -1.9807843 5918013
0.3529623 -0.24174049 -1.9807843 7100998
0.35642272 -0.24174049 -1.9807843 8876890
0.35988313 -0.24174049 -1.9807843 10653550
0.36334355 -0.24174049 -1.9807843 11311737
0.36680396 -0.24174049 -1.9807843 11838081
0.37026438 -0.24174049 -1.9807843 12364425
0.37372479 -0.24174049 -1.9807843 12430219
0.37718521 -0.24174049 -1.9807843 12562317
0.38064562 -0.24174049 -1.9807843 12891028
0.38410604 -0.24174049 -1.9807843 12891028
0.38756645 -0.24174049 -1.9807843 13022358
0.39102687 -0.24174049 -1.9807843 13022358
0.39448728 -0.24174049 -1.9807843 13154200
0.3979477 -0.24174049 -1.9807843 13153944
0.40140811 -0.24174049 -1.9807843 13088150
0.40486853 -0.24174049 -1.9807843 13154200
0.40832894 -0.24174049 -1.9807843 12890772
0.41178936 -0.24174049 -1.9807843 12890772
0.41524977 -0.24174049 -1.9807843 12891028
0.41871019 -0.24174049 -1.9807843 12825234
0.4221706 -0.24174049 -1.9807843 12824978
0.42167048 -0.23949108 -1.9623529 12890772
0.4250987 -0.23949108 -1.9623529 12891028
0.42852691 -0.23949108 -1.9623529 12562319
0.43195513 -0.23949108 -1.9623529 12693391
0.43538334 -0.23949108 -1.9623529 12759185
0.43881156 -0.23949108 -1.9623529 12759185
0.44223977 -0.23949108 -1.9623529 12430219
0.44148206 -0.23724166 -1.9439216 12298377
0.44487807 -0.23724166 -1.9439216 11574910
0.44827409 -0.23724166 -1.9439216 10325100
0.4516701 -0.23724166 -1.9439216 9010015
0.45506612 -0.23724166 -1.9439216 7825744
0.45846214 -0.23724166 -1.9439216 8416854
0.46185815 -0.23724166 -1.9439216 11639930
0.46084284 -0.23499224 -1.9254902 12429961
0.46420666 -0.23499224 -1.9254902 12561549
0.46757047 -0.23499224 -1.9254902 12758929
0.47093429 -0.23499224 -1.9254902 12758930
0.47429811 -0.23499224 -1.9254902 12693135
0.47766192 -0.23499224 -1.9254902 11838083
0.47642122 -0.23274283 -1.9070588 11903617
0.47975283 -0.23274283 -1.9070588 11837569
0.48308445 -0.23274283 -1.9070588 11640703
0.48641607 -0.23274283 -1.9070588 11837056
0.48501436 -0.23049341 -1.8886275 11968900
0.48831378 -0.23049341 -1.8886275 11968643
0.4916132 -0.23049341 -1.8886275 11968643
0.4900827 -0.22824399 -1.8701961 11903107
0.49334991 -0.22824399 -1.8701961 11837570
0.49661713 -0.22824399 -1.8701961 11837569
0.49988435 -0.22824399 -1.8701961 11837313
0.49819285 -0.22599458 -1.8517647 11771521
0.50142787 -0.22599458 -1.8517647 11837313
0.50466289 -0.22599458 -1.8517647 11837570
0.50284259 -0.22374516 -1.8333333 11837056
0.50604541 -0.22374516 -1.8333333 11705727
0.50924823 -0.22374516 -1.8333333 11771263
0.50729913 -0.22149574 -1.814902 11640190
0.51046975 -0.22149574 -1.814902 7892054
-0.34255023 -0.18285501 -1.52 14465603
-0.3398948 -0.18285501 -1.52 14465855
-0.34132871 -0.18507229 -1.5384314 14597179
-0.33864108 -0.18507229 -1.5384314 14794554
-0.33595345 -0.18507229 -1.5384314 14860090
-0.33725856 -0.18728957 -1.5568627 14795067
-0.33453873 -0.18728957 -1.5568627 14991932
-0.3318189 -0.18728957 -1.5568627 14926652
-0.32909908 -0.18728957 -1.5568627 15057982
-0.32637925 -0.18728957 -1.5568627 15057981
-0.32365942 -0.18728957 -1.5568627 15124287
-0.32473913 -0.18950685 -1.5752941 15058495
-0.32198711 -0.18950685 -1.5752941 15058495
-0.31923508 -0.18950685 -1.5752941 15058495
-0.31648305 -0.18950685 -1.5752941 15124287
-0.31373103 -0.18950685 -1.5752941 15124544
-0.310979 -0.18950685 -1.5752941 15124544
-0.30822697 -0.18950685 -1.5752941 15058752
-0.30547495 -0.18950685 -1.5752941 15058753
-0.30272292 -0.18950685 -1.5752941 15124546
-0.29997089 -0.18950685 -1.5752941 15058753
-0.30069641 -0.19172414 -1.5937255 15058753
-0.29791218 -0.19172414 -1.5937255 15124546
-0.29512796 -0.19172414 -1.5937255 15058497
-0.29234373 -0.19172414 -1.5937255 15124290
-0.2895595 -0.19172414 -1.5937255 15124290
-0.28677528 -0.19172414 -1.5937255 15124033
-0.28399105 -0.19172414 -1.5937255 15058496
-0.28120683 -0.19172414 -1.5937255 15058496
-0.2784226 -0.19172414 -1.5937255 14992960
-0.27563837 -0.19172414 -1.5937255 15124289
-0.27285415 -0.19172414 -1.5937255 15124289
-0.27006992 -0.19172414 -1.5937255 14992448
-0.2672857 -0.19172414 -1.5937255 14992448
-0.26450147 -0.19172414 -1.5937255 14926398
-0.26171724 -0.19172414 -1.5937255 14992447
-0.25893302 -0.19172414 -1.5937255 14860603
-0.25614879 -0.19172414 -1.5937255 14860603
-0.25336457 -0.19172414 -1.5937255 14926397
-0.25058034 -0.19172414 -1.5937255 14728503
-0.24779611 -0.19172414 -1.5937255 14794552
-0.24501189 -0.19172414 -1.5937255 14794552
-0.24222766 -0.19172414 -1.5937255 14662707
-0.23944344 -0.19172414 -1.5937255 14596915
-0.23665921 -0.19172414 -1.5937255 14399536
-0.23387498 -0.19172414 -1.5937255 14267950
-0.23109076 -0.19172414 -1.5937255 14135593
-0.22566618 -0.18950685 -1.5752941 14135594
-0.22291415 -0.18950685 -1.5752941 13608482
-0.22016212 -0.18950685 -1.5752941 13542689
-0.2174101 -0.18950685 -1.5752941 13345311
-0.21465807 -0.18950685 -1.5752941 13015580
-0.21190604 -0.18950685 -1.5752941 12884251
-0.20670686 -0.18728957 -1.5568627 12094231
-0.20398703 -0.18728957 -1.5568627 12094487
-0.2012672 -0.18728957 -1.5568627 11304725
-0.19619682 -0.18507229 -1.5384314 10449941
-0.19350919 -0.18507229 -1.5384314 9594644
-0.19082156 -0.18507229 -1.5384314 6899731
-0.18587997 -0.18285501 -1.52 9792014
-0.18322454 -0.18285501 -1.52 10186248
-0.18056911 -0.18285501 -1.52 10054663
-0.17791369 -0.18285501 -1.52 11896587
-0.17525826 -0.18285501 -1.52 12093708
-0.17260283 -0.18285501 -1.52 11831051
-0.1699474 -0.18285501 -1.52 11765002
-0.16729197 -0.18285501 -1.52 12225553
-0.16463655 -0.18285501 -1.52 12357393
-0.16198112 -0.18285501 -1.52 11830799
-0.16125766 -0.18507229 -1.5384314 11831056
-0.15857003 -0.18507229 -1.5384314 11831056
-0.1558824 -0.18507229 -1.5384314 12028176
-0.15503014 -0.18728957 -1.5568627 12094226
-0.15231032 -0.18728957 -1.5568627 12489236
-0.14959049 -0.18728957 -1.5568627 12489236
-0.14687066 -0.18728957 -1.5568627 12423699
-0.14585741 -0.18950685 -1.5752941 12423700
-0.14310538 -0.18950685 -1.5752941 12818710
-0.14035335 -0.18950685 -1.5752941 12884246
-0.13760133 -0.18950685 -1.5752941 13213209
-0.1348493 -0.18950685 -1.5752941 13081367
-0.13364285 -0.19172414 -1.5937255 13410842
-0.13085862 -0.19172414 -1.5937255 13344538
-0.1280744 -0.19172414 -1.5937255 13607966
-0.12529017 -0.19172414 -1.5937255 13476893
-0.12392272 -0.19394142 -1.6121569 13608481
-0.1211063 -0.19394142 -1.6121569 14003493
-0.11828987 -0.19394142 -1.6121569 13937701
-0.11547344 -0.19394142 -1.6121569 14201899
-0.113945 -0.1961587 -1.6305882 14201898
-0.11109637 -0.1961587 -1.6305882 14399278
-0.10824775 -0.1961587 -1.6305882 14596914
-0.10539912 -0.1961587 -1.6305882 14465586
-0.1025505 -0.1961587 -1.6305882 14662966
-0.10082885 -0.19837598 -1.6490196 14728758
-0.09794803 -0.19837598 -1.6490196 14860088
-0.095067205 -0.19837598 -1.6490196 14926394
-0.092186381 -0.19837598 -1.6490196 14926395
-0.089305556 -0.19837598 -1.6490196 14926395
-0.086424732 -0.19837598 -1.6490196 15058496
-0.083543908 -0.19837598 -1.6490196 14926911
-0.080663083 -0.19837598 -1.6490196 14926911
-0.077782259 -0.19837598 -1.6490196 15057984
-0.074901434 -0.19837598 -1.6490196 14992192
-0.072825597 -0.20059326 -1.667451 15057985
-0.069912573 -0.20059326 -1.667451 14926912
-0.066999549 -0.20059326 -1.667451 14992448
-0.064086525 -0.20059326 -1.667451 14728763
-0.061173501 -0.20059326 -1.667451 14728506
-0.057616488 -0.19837598 -1.6490196 14728763
-0.054735664 -0.19837598 -1.6490196 14662711
-0.051854839 -0.19837598 -1.6490196 14596661
-0.048974015 -0.19837598 -1.6490196 14399538
-0.04609319 -0.19837598 -1.6490196 14333746
-0.043212366 -0.19837598 -1.6490196 14069802
-0.040331542 -0.19837598 -1.6490196 14135339
-0.037450717 -0.19837598 -1.6490196 13872167
-0.034569893 -0.19837598 -1.6490196 13542946
-0.031689068 -0.19837598 -1.6490196 13608483
-0.028808244 -0.19837598 -1.6490196 13081627
-0.025637624 -0.1961587 -1.6305882 13213212
-0.022788999 -0.1961587 -1.6305882 12752408
-0.019940375 -0.1961587 -1.6305882 12093972
-0.01709175 -0.1961587 -1.6305882 12028180
-0.014243125 -0.1961587 -1.6305882 11107858
-0.011265702 -0.19394142 -1.6121569 11173138
-0.0084492764 -0.19394142 -1.6121569 10515218
-0.0056328509 -0.19394142 -1.6121569 9989394
-0.002784226 -0.19172414 -1.5937255 9463058
-1.9984014e-15 -0.19172414 -1.5937255 8805907
0.002784226 -0.19172414 -1.5937255 8017171
0.0055040531 -0.18950685 -1.5752941 7622933
0.0081594812 -0.18728957 -1.5568627 3811606
0.01075051 -0.18507229 -1.5384314 3549727
0.19657841 -0.21833152 -1.814902 10390895
0.20380617 -0.22276608 -1.8517647 9667175
0.21116272 -0.22720065 -1.8886275 9930602
0.21446213 -0.22720065 -1.8886275 11640449
0.21988672 -0.22941793 -1.9070588 10719604
0.22321833 -0.22941793 -1.9070588 8548187
0.22654995 -0.22941793 -1.9070588 6772554
0.23210333 -0.23163521 -1.9254902 6115138
0.23546715 -0.23163521 -1.9254902 5588541
0.23883096 -0.23163521 -1.9254902 5918273
0.24451314 -0.23385249 -1.9439216 6838342
0.24790916 -0.23385249 -1.9439216 5195066
0.25130517 -0.23385249 -1.9439216 4603443
0.25711615 -0.23606978 -1.9623529 4274737
0.26054436 -0.23606978 -1.9623529 4208944
0.26397258 -0.23606978 -1.9623529 4142637
0.26740079 -0.23606978 -1.9623529 4340015
0.27082901 -0.23606978 -1.9623529 5523003
0.27425722 -0.23606978 -1.9623529 6838342
0.27768544 -0.23606978 -1.9623529 8745818
0.28375401 -0.23828706 -1.9807843 8745562
0.28721442 -0.23828706 -1.9807843 6641222
0.29067484 -0.23828706 -1.9807843 6443587
0.29413525 -0.23828706 -1.9807843 6640710
0.29759567 -0.23828706 -1.9807843 6969673
0.30105608 -0.23828706 -1.9807843 8219736
0.3045165 -0.23828706 -1.9807843 10061929
0.30797691 -0.23828706 -1.9807843 11640446
0.31143733 -0.23828706 -1.9807843 12562317
0.31489774 -0.23828706 -1.9807843 11640705
0.31835816 -0.23828706 -1.9807843 10193516
0.32481312 -0.24050434 -1.9992157 7891283
0.32830574 -0.24050434 -1.9992157 6510150
0.33179835 -0.24050434 -1.9992157 6773062
0.33529096 -0.24050434 -1.9992157 5655101
0.33878358 -0.24050434 -1.9992157 6443845
0.34227619 -0.24050434 -1.9992157 7167306
0.34576881 -0.24050434 -1.9992157 7890769
0.34926142 -0.24050434 -1.9992157 8285528
0.35275404 -0.24050434 -1.9992157 9667174
0.35624665 -0.24050434 -1.9992157 10390894
0.35973926 -0.24050434 -1.9992157 11443069
0.36323188 -0.24050434 -1.9992157 12561805
0.36672449 -0.24050434 -1.9992157 12891028
0.37021711 -0.24050434 -1.9992157 12693647
0.37370972 -0.24050434 -1.9992157 12825490
0.37372479 -0.23828706 -1.9807843 12825233
0.37718521 -0.23828706 -1.9807843 12891028
0.38064562 -0.23828706 -1.9807843 13022358
0.38410604 -0.23828706 -1.9807843 13088150
0.38756645 -0.23828706 -1.9807843 13022358
0.39102687 -0.23828706 -1.9807843 13088406
0.39448728 -0.23828706 -1.9807843 13153944
0.3979477 -0.23828706 -1.9807843 13088150
0.40140811 -0.23828706 -1.9807843 13088406
0.40486853 -0.23828706 -1.9807843 13153944
0.40832894 -0.23828706 -1.9807843 12824978
0.41178936 -0.23828706 -1.9807843 12890772
0.41524977 -0.23828706 -1.9807843 12890772
0.41871019 -0.23828706 -1.9807843 12890772
0.4221706 -0.23828706 -1.9807843 12825234
0.42563101 -0.23828706 -1.9807843 12824978
0.4250987 -0.23606978 -1.9623529 12825234
0.42852691 -0.23606978 -1.9623529 12890772
0.43195513 -0.23606978 -1.9623529 12891028
0.43538334 -0.23606978 -1.9623529 12759185
0.43881156 -0.23606978 -1.9623529 12561805
0.44223977 -0.23606978 -1.9623529 12298632
0.44566799 -0.23606978 -1.9623529 12167047
0.4490962 -0.23606978 -1.9623529 11772288
0.44827409 -0.23385249 -1.9439216 10061929
0.4516701 -0.23385249 -1.9439216 7826000
0.45506612 -0.23385249 -1.9439216 5260854
0.45846214 -0.23385249 -1.9439216 5852219
0.46185815 -0.23385249 -1.9439216 8021841
0.46525417 -0.23385249 -1.9439216 11113590
0.46865018 -0.23385249 -1.9439216 12364168
0.46757047 -0.23163521 -1.9254902 12561551
0.47093429 -0.23163521 -1.9254902 12693393
0.47429811 -0.23163521 -1.9254902 11969157
0.47766192 -0.23163521 -1.9254902 11903363
0.48102574 -0.23163521 -1.9254902 11903362
0.47975283 -0.22941793 -1.9070588 11705984
0.48308445 -0.22941793 -1.9070588 11442811
0.48641607 -0.22941793 -1.9070588 10916468
0.48501436 -0.22720065 -1.8886275 11705469
0.48831378 -0.22720065 -1.8886275 11837313
0.4916132 -0.22720065 -1.8886275 11903108
0.49491261 -0.22720065 -1.8886275 11968643
0.49334991 -0.22498337 -1.8701961 11969156
0.49661713 -0.22498337 -1.8701961 11837826
0.49988435 -0.22498337 -1.8701961 11837570
0.49819285 -0.22276608 -1.8517647 11837569
0.50142787 -0.22276608 -1.8517647 11837568
0.50466289 -0.22276608 -1.8517647 11837058
0.50789791 -0.22276608 -1.8517647 11837312
0.50604541 -0.2205488 -1.8333333 11640190
0.50924823 -0.2205488 -1.8333333 11310968
0.51245105 -0.2205488 -1.8333333 11508089
0.51046975 -0.21833152 -1.814902 8681052
-0.34101973 -0.17801979 -1.5015686 14268488
-0.34255023 -0.18020493 -1.52 14399802
-0.34401633 -0.18239008 -1.5384314 14596920
-0.34132871 -0.18239008 -1.5384314 14662713
-0.33864108 -0.18239008 -1.5384314 14728761
-0.33595345 -0.18239008 -1.5384314 14860090
-0.33725856 -0.18457523 -1.5568627 14926395
-0.33453873 -0.18457523 -1.5568627 14991932
-0.3318189 -0.18457523 -1.5568627 14926651
-0.32909908 -0.18457523 -1.5568627 14992445
-0.32637925 -0.18457523 -1.5568627 14992189
-0.32749116 -0.18676038 -1.5752941 15057982
-0.32473913 -0.18676038 -1.5752941 15124288
-0.32198711 -0.18676038 -1.5752941 15124287
-0.31923508 -0.18676038 -1.5752941 15058495
-0.31648305 -0.18676038 -1.5752941 15058752
-0.31373103 -0.18676038 -1.5752941 15058752
-0.310979 -0.18676038 -1.5752941 15058752
-0.30822697 -0.18676038 -1.5752941 15058753
-0.30547495 -0.18676038 -1.5752941 15124546
-0.30272292 -0.18676038 -1.5752941 15058753
-0.30348063 -0.18894552 -1.5937255 15058753
-0.30069641 -0.18894552 -1.5937255 15124546
-0.29791218 -0.18894552 -1.5937255 15124546
-0.29512796 -0.18894552 -1.5937255 15058496
-0.29234373 -0.18894552 -1.5937255 15058497
-0.2895595 -0.18894552 -1.5937255 15058498
-0.28677528 -0.18894552 -1.5937255 15058497
-0.28399105 -0.18894552 -1.5937255 15124290
-0.28120683 -0.18894552 -1.5937255 15124289
-0.2784226 -0.18894552 -1.5937255 14992961
-0.27563837 -0.18894552 -1.5937255 15057984
-0.27285415 -0.18894552 -1.5937255 15057984
-0.27006992 -0.18894552 -1.5937255 14926655
-0.2672857 -0.18894552 -1.5937255 14992448
-0.26450147 -0.18894552 -1.5937255 14992191
-0.26171724 -0.18894552 -1.5937255 14926655
-0.25893302 -0.18894552 -1.5937255 14926655
-0.25614879 -0.18894552 -1.5937255 14926396
-0.25336457 -0.18894552 -1.5937255 14926397
-0.25058034 -0.18894552 -1.5937255 14728502
-0.24779611 -0.18894552 -1.5937255 14728760
-0.24501189 -0.18894552 -1.5937255 14728760
-0.24222766 -0.18894552 -1.5937255 14596915
-0.23944344 -0.18894552 -1.5937255 14662710
-0.23665921 -0.18894552 -1.5937255 14333486
-0.23387498 -0.18894552 -1.5937255 14267950
-0.23109076 -0.18894552 -1.5937255 14069800
-0.22566618 -0.18676038 -1.5752941 13872166
-0.22291415 -0.18676038 -1.5752941 13806374
-0.22016212 -0.18676038 -1.5752941 13608482
-0.2174101 -0.18676038 -1.5752941 13608482
-0.21465807 -0.18676038 -1.5752941 12884251
-0.21190604 -0.18676038 -1.5752941 12884252
-0.20670686 -0.18457523 -1.5568627 11962646
-0.20398703 -0.18457523 -1.5568627 11896854
-0.2012672 -0.18457523 -1.5568627 10647059
-0.19854738 -0.18457523 -1.5568627 10449940
-0.19350919 -0.18239008 -1.5384314 9331987
-0.19082156 -0.18239008 -1.5384314 6965522
-0.18587997 -0.18020493 -1.52 5914127
-0.18322454 -0.18020493 -1.52 11107341
-0.18056911 -0.18020493 -1.52 9857544
-0.17791369 -0.18020493 -1.52 11830794
-0.17525826 -0.18020493 -1.52 12028171
-0.17050986 -0.17801979 -1.5015686 11962378
-0.1699474 -0.18020493 -1.52 10910216
-0.16729197 -0.18020493 -1.52 11831052
-0.16463655 -0.18020493 -1.52 10712588
-0.16198112 -0.18020493 -1.52 12028176
-0.15932569 -0.18020493 -1.52 11962384
-0.15857003 -0.18239008 -1.5384314 11831056
-0.1558824 -0.18239008 -1.5384314 11699470
-0.15319477 -0.18239008 -1.5384314 11831055
-0.15231032 -0.18457523 -1.5568627 12225553
-0.14959049 -0.18457523 -1.5568627 12357651
-0.14687066 -0.18457523 -1.5568627 12357139
-0.14415084 -0.18457523 -1.5568627 12488980
-0.14310538 -0.18676038 -1.5752941 12489235
-0.14035335 -0.18676038 -1.5752941 12818453
-0.13760133 -0.18676038 -1.5752941 12884246
-0.1348493 -0.18676038 -1.5752941 13015831
-0.13364285 -0.18894552 -1.5937255 13015575
-0.13085862 -0.18894552 -1.5937255 13081624
-0.1280744 -0.18894552 -1.5937255 13213723
-0.12529017 -0.18894552 -1.5937255 13476637
-0.12392272 -0.19113067 -1.6121569 13805858
-0.1211063 -0.19113067 -1.6121569 13476897
-0.11828987 -0.19113067 -1.6121569 13937701
-0.11547344 -0.19113067 -1.6121569 13871909
-0.113945 -0.19331582 -1.6305882 14135592
-0.11109637 -0.19331582 -1.6305882 14333742
-0.10824775 -0.19331582 -1.6305882 14662706
-0.10539912 -0.19331582 -1.6305882 14662450
-0.1025505 -0.19331582 -1.6305882 14465586
-0.10082885 -0.19550097 -1.6490196 14794294
-0.09794803 -0.19550097 -1.6490196 14794552
-0.095067205 -0.19550097 -1.6490196 14860601
-0.092186381 -0.19550097 -1.6490196 14926653
-0.089305556 -0.19550097 -1.6490196 14992445
-0.086424732 -0.19550097 -1.6490196 14992447
-0.083543908 -0.19550097 -1.6490196 14992191
-0.080663083 -0.19550097 -1.6490196 14992961
-0.077782259 -0.19550097 -1.6490196 15058497
-0.074901434 -0.19550097 -1.6490196 14992191
-0.072825597 -0.19768611 -1.667451 14992192
-0.069912573 -0.19768611 -1.667451 14795069
-0.066999549 -0.19768611 -1.667451 14860605
-0.064086525 -0.19768611 -1.667451 14794556
-0.060497312 -0.19550097 -1.6490196 14794555
-0.057616488 -0.19550097 -1.6490196 14728763
-0.054735664 -0.19550097 -1.6490196 14662712
-0.051854839 -0.19550097 -1.6490196 14465588
-0.048974015 -0.19550097 -1.6490196 14334002
-0.04609319 -0.19550097 -1.6490196 14136109
-0.043212366 -0.19550097 -1.6490196 14069802
-0.040331542 -0.19550097 -1.6490196 13872167
-0.037450717 -0.19550097 -1.6490196 13542946
-0.034569893 -0.19550097 -1.6490196 13608739
-0.031689068 -0.19550097 -1.6490196 13608482
-0.028808244 -0.19550097 -1.6490196 13081882
-0.025637624 -0.19331582 -1.6305882 12686615
-0.022788999 -0.19331582 -1.6305882 12225811
-0.019940375 -0.19331582 -1.6305882 12093971
-0.01709175 -0.19331582 -1.6305882 12093716
-0.014243125 -0.19331582 -1.6305882 11041297
-0.011265702 -0.19113067 -1.6121569 10778383
-0.0084492764 -0.19113067 -1.6121569 10186256
-0.0056328509 -0.19113067 -1.6121569 9660690
-0.002784226 -0.18894552 -1.5937255 9463057
-1.9984014e-15 -0.18894552 -1.5937255 8674322
0.002784226 -0.18894552 -1.5937255 8017172
0.0055040531 -0.18676038 -1.5752941 2957329
0.0081594812 -0.18457523 -1.5568627 3351572
0.01075051 -0.18239008 -1.5384314 3220505
0.19144363 -0.21298215 -1.7964706 10061930
0.19857478 -0.21735244 -1.8333333 10127725
0.20583473 -0.22172274 -1.8701961 9733223
0.21116272 -0.22390789 -1.8886275 11377019
0.2165551 -0.22609303 -1.9070588 9995626
0.21988672 -0.22609303 -1.9070588 7956565
0.22321833 -0.22609303 -1.9070588 6640966
0.22873951 -0.22827818 -1.9254902 5654847
0.23210333 -0.22827818 -1.9254902 5194296
0.23546715 -0.22827818 -1.9254902 6378306
0.24111712 -0.23046333 -1.9439216 5918015
0.24451314 -0.23046333 -1.9439216 4800568
0.24790916 -0.23046333 -1.9439216 4997689
0.25368793 -0.23264848 -1.9623529 4340274
0.25711615 -0.23264848 -1.9623529 4406066
0.26054436 -0.23264848 -1.9623529 4537393
0.26397258 -0.23264848 -1.9623529 4208429
0.26740079 -0.23264848 -1.9623529 4931636
0.27337277 -0.23483362 -1.9807843 6246466
0.27683318 -0.23483362 -1.9807843 8351062
0.28029359 -0.23483362 -1.9807843 9601379
0.28375401 -0.23483362 -1.9807843 9207137
0.28721442 -0.23483362 -1.9807843 9075295
0.29067484 -0.23483362 -1.9807843 9272930
0.29413525 -0.23483362 -1.9807843 9601637
0.29759567 -0.23483362 -1.9807843 10061929
0.30105608 -0.23483362 -1.9807843 11837568
0.3045165 -0.23483362 -1.9807843 12496267
0.30797691 -0.23483362 -1.9807843 12562061
0.31433528 -0.23701877 -1.9992157 12693649
0.31782789 -0.23701877 -1.9992157 12693393
0.32132051 -0.23701877 -1.9992157 11706753
0.32481312 -0.23701877 -1.9992157 10719859
0.32830574 -0.23701877 -1.9992157 10719860
0.33179835 -0.23701877 -1.9992157 10785396
0.33529096 -0.23701877 -1.9992157 10061930
0.33878358 -0.23701877 -1.9992157 9798503
0.34227619 -0.23701877 -1.9992157 10522479
0.34576881 -0.23701877 -1.9992157 10917239
0.34926142 -0.23701877 -1.9992157 11508862
0.35275404 -0.23701877 -1.9992157 11969670
0.35624665 -0.23701877 -1.9992157 12232841
0.35973926 -0.23701877 -1.9992157 12430477
0.36323188 -0.23701877 -1.9992157 12759441
0.36672449 -0.23701877 -1.9992157 12891028
0.37021711 -0.23701877 -1.9992157 13088150
0.37370972 -0.23701877 -1.9992157 13022358
0.37720234 -0.23701877 -1.9992157 12891028
0.38069495 -0.23701877 -1.9992157 12891028
0.38418756 -0.23701877 -1.9992157 13022358
0.38768018 -0.23701877 -1.9992157 13088406
0.39117279 -0.23701877 -1.9992157 13088150
0.39466541 -0.23701877 -1.9992157 13153944
0.39815802 -0.23701877 -1.9992157 13088150
0.40165063 -0.23701877 -1.9992157 13088150
0.40514325 -0.23701877 -1.9992157 13153944
0.40486853 -0.23483362 -1.9807843 12890516
0.40832894 -0.23483362 -1.9807843 12824978
0.41178936 -0.23483362 -1.9807843 12825746
0.41524977 -0.23483362 -1.9807843 12825746
0.41871019 -0.23483362 -1.9807843 12824978
0.4221706 -0.23483362 -1.9807843 12891028
0.42563101 -0.23483362 -1.9807843 12890772
0.42909143 -0.23483362 -1.9807843 12825490
0.43255184 -0.23483362 -1.9807843 12825234
0.43195513 -0.23264848 -1.9623529 12825234
0.43538334 -0.23264848 -1.9623529 12824978
0.43881156 -0.23264848 -1.9623529 12693647
0.44223977 -0.23264848 -1.9623529 12430477
0.44566799 -0.23264848 -1.9623529 12101253
0.4490962 -0.23264848 -1.9623529 12101254
0.45252442 -0.23264848 -1.9623529 11114104
0.4516701 -0.23046333 -1.9439216 7628623
0.45506612 -0.23046333 -1.9439216 4669234
0.45846214 -0.23046333 -1.9439216 4668719
0.46185815 -0.23046333 -1.9439216 5523256
0.46525417 -0.23046333 -1.9439216 9534303
0.46865018 -0.23046333 -1.9439216 11968638
0.4720462 -0.23046333 -1.9439216 12495499
0.47093429 -0.22827818 -1.9254902 12693135
0.47429811 -0.22827818 -1.9254902 11837828
0.47766192 -0.22827818 -1.9254902 11968644
0.48102574 -0.22827818 -1.9254902 11837570
0.47975283 -0.22609303 -1.9070588 11640190
0.48308445 -0.22609303 -1.9070588 11245176
0.48641607 -0.22609303 -1.9070588 10455404
0.48974768 -0.22609303 -1.9070588 11047540
0.48831378 -0.22390789 -1.8886275 11508090
0.4916132 -0.22390789 -1.8886275 11574141
0.49491261 -0.22390789 -1.8886275 11837058
0.49334991 -0.22172274 -1.8701961 11968899
0.49661713 -0.22172274 -1.8701961 11771776
0.49988435 -0.22172274 -1.8701961 11837313
0.50315157 -0.22172274 -1.8701961 11903362
0.50142787 -0.21953759 -1.8517647 11837825
0.50466289 -0.21953759 -1.8517647 11837569
0.50789791 -0.21953759 -1.8517647 11705983
0.50604541 -0.21735244 -1.8333333 11179640
0.50924823 -0.21735244 -1.8333333 9009246
0.51245105 -0.21735244 -1.8333333 8811609
0.51046975 -0.2151673 -1.814902 9272156
-0.34520566 -0.17755486 -1.52 14399814
-0.34255023 -0.17755486 -1.52 14465595
-0.34401633 -0.17970787 -1.5384314 14596920
-0.34132871 -0.17970787 -1.5384314 14662969
-0.33864108 -0.17970787 -1.5384314 14860090
-0.33997838 -0.18186089 -1.5568627 14794297
-0.33725856 -0.18186089 -1.5568627 14926395
-0.33453873 -0.18186089 -1.5568627 14926395
-0.3318189 -0.18186089 -1.5568627 14992188
-0.32909908 -0.18186089 -1.5568627 14926652
-0.33024319 -0.1840139 -1.5752941 15124031
-0.32749116 -0.1840139 -1.5752941 14992445
-0.32473913 -0.1840139 -1.5752941 15124288
-0.32198711 -0.1840139 -1.5752941 15058495
-0.31923508 -0.1840139 -1.5752941 15124287
-0.31648305 -0.1840139 -1.5752941 15124545
-0.31373103 -0.1840139 -1.5752941 15124545
-0.310979 -0.1840139 -1.5752941 15124546
-0.30822697 -0.1840139 -1.5752941 15058753
-0.30547495 -0.1840139 -1.5752941 15124546
-0.30626486 -0.18616691 -1.5937255 15124546
-0.30348063 -0.18616691 -1.5937255 15058753
-0.30069641 -0.18616691 -1.5937255 15124546
-0.29791218 -0.18616691 -1.5937255 15058496
-0.29512796 -0.18616691 -1.5937255 15124290
-0.29234373 -0.18616691 -1.5937255 15058498
-0.2895595 -0.18616691 -1.5937255 15124290
-0.28677528 -0.18616691 -1.5937255 15058497
-0.28399105 -0.18616691 -1.5937255 15124290
-0.28120683 -0.18616691 -1.5937255 15057984
-0.2784226 -0.18616691 -1.5937255 15058497
-0.27563837 -0.18616691 -1.5937255 15058497
-0.27285415 -0.18616691 -1.5937255 15058496
-0.27006992 -0.18616691 -1.5937255 14992448
-0.2672857 -0.18616691 -1.5937255 14992448
-0.26450147 -0.18616691 -1.5937255 14992190
-0.26171724 -0.18616691 -1.5937255 14992447
-0.25893302 -0.18616691 -1.5937255 14926654
-0.25614879 -0.18616691 -1.5937255 14926139
-0.25336457 -0.18616691 -1.5937255 14860603
-0.25058034 -0.18616691 -1.5937255 14794296
-0.24779611 -0.18616691 -1.5937255 14662968
-0.24501189 -0.18616691 -1.5937255 14794552
-0.24222766 -0.18616691 -1.5937255 14596915
-0.23944344 -0.18616691 -1.5937255 14662709
-0.23665921 -0.18616691 -1.5937255 14267692
-0.23387498 -0.18616691 -1.5937255 14333486
-0.23109076 -0.18616691 -1.5937255 14333486
-0.22830653 -0.18616691 -1.5937255 13937702
-0.22291415 -0.1840139 -1.5752941 13937959
-0.22016212 -0.1840139 -1.5752941 13542689
-0.2174101 -0.1840139 -1.5752941 13410591
-0.21465807 -0.1840139 -1.5752941 13081372
-0.21190604 -0.1840139 -1.5752941 12160279
-0.20670686 -0.18186089 -1.5568627 12225814
-0.20398703 -0.18186089 -1.5568627 11831061
-0.2012672 -0.18186089 -1.5568627 10712340
-0.19854738 -0.18186089 -1.5568627 10449683
-0.19350919 -0.17970787 -1.5384314 8740371
-0.19082156 -0.17970787 -1.5384314 6899475
-0.18587997 -0.17755486 -1.52 5651213
-0.18322454 -0.17755486 -1.52 8805384
-0.18056911 -0.17755486 -1.52 9791752
-0.17575632 -0.17540185 -1.5015686 7293703
-0.17313309 -0.17540185 -1.5015686 7359750
-0.17050986 -0.17540185 -1.5015686 12027915
-0.16788664 -0.17540185 -1.5015686 11962122
-0.16526341 -0.17540185 -1.5015686 11896588
-0.16463655 -0.17755486 -1.52 11831052
-0.16198112 -0.17755486 -1.52 10646539
-0.15932569 -0.17755486 -1.52 10646540
-0.15857003 -0.17970787 -1.5384314 10843918
-0.1558824 -0.17970787 -1.5384314 11765263
-0.15319477 -0.17970787 -1.5384314 11699471
-0.15050715 -0.17970787 -1.5384314 11765007
-0.14959049 -0.18186089 -1.5568627 11765263
-0.14687066 -0.18186089 -1.5568627 12225554
-0.14415084 -0.18186089 -1.5568627 11962640
-0.14143101 -0.18186089 -1.5568627 12489235
-0.14035335 -0.1840139 -1.5752941 12489236
-0.13760133 -0.1840139 -1.5752941 12555028
-0.1348493 -0.1840139 -1.5752941 12555285
-0.13209727 -0.1840139 -1.5752941 12752149
-0.13085862 -0.18616691 -1.5937255 12752406
-0.1280744 -0.18616691 -1.5937255 13015576
-0.12529017 -0.18616691 -1.5937255 13345307
-0.12250594 -0.18616691 -1.5937255 13213212
-0.1211063 -0.18831993 -1.6121569 13476897
-0.11828987 -0.18831993 -1.6121569 14003750
-0.11547344 -0.18831993 -1.6121569 13871909
-0.113945 -0.19047294 -1.6305882 14267435
-0.11109637 -0.19047294 -1.6305882 14333743
-0.10824775 -0.19047294 -1.6305882 14399535
-0.10539912 -0.19047294 -1.6305882 14596914
-0.1025505 -0.19047294 -1.6305882 14662708
-0.10082885 -0.19262595 -1.6490196 14794038
-0.09794803 -0.19262595 -1.6490196 14860600
-0.095067205 -0.19262595 -1.6490196 14926394
-0.092186381 -0.19262595 -1.6490196 14926653
-0.089305556 -0.19262595 -1.6490196 15057981
-0.086424732 -0.19262595 -1.6490196 15057982
-0.083543908 -0.19262595 -1.6490196 14992959
-0.080663083 -0.19262595 -1.6490196 15057984
-0.077782259 -0.19262595 -1.6490196 14992448
-0.07573862 -0.19477897 -1.667451 15058496
-0.072825597 -0.19477897 -1.667451 14860863
-0.069912573 -0.19477897 -1.667451 14926397
-0.066999549 -0.19477897 -1.667451 14860605
-0.064086525 -0.19477897 -1.667451 14926398
-0.060497312 -0.19262595 -1.6490196 14728763
-0.057616488 -0.19262595 -1.6490196 14728504
-0.054735664 -0.19262595 -1.6490196 14465588
-0.051854839 -0.19262595 -1.6490196 14596661
-0.048974015 -0.19262595 -1.6490196 14201901
-0.04609319 -0.19262595 -1.6490196 14136108
-0.043212366 -0.19262595 -1.6490196 14135595
-0.040331542 -0.19262595 -1.6490196 13937703
-0.037450717 -0.19262595 -1.6490196 13411102
-0.034569893 -0.19262595 -1.6490196 13476640
-0.031689068 -0.19262595 -1.6490196 12818712
-0.028808244 -0.19262595 -1.6490196 12884248
-0.025637624 -0.19047294 -1.6305882 12357909
-0.022788999 -0.19047294 -1.6305882 12160020
-0.019940375 -0.19047294 -1.6305882 12094228
-0.01709175 -0.19047294 -1.6305882 11436305
-0.014243125 -0.19047294 -1.6305882 10843919
-0.011265702 -0.18831993 -1.6121569 10712848
-0.0084492764 -0.18831993 -1.6121569 10317585
-0.0056328509 -0.18831993 -1.6121569 9792017
-0.002784226 -0.18616691 -1.5937255 9069073
-1.9984014e-15 -0.18616691 -1.5937255 8476946
0.0027520265 -0.1840139 -1.5752941 7754003
0.0055040531 -0.1840139 -1.5752941 5585172
0.0081594812 -0.18186089 -1.5568627 3022868
0.01075051 -0.17970787 -1.5384314 3220762
0.19340779 -0.21200307 -1.814902 10390639
0.20057115 -0.2163091 -1.8517647 9338725
0.2078633 -0.22061512 -1.8886275 9732969
0.21322348 -0.22276814 -1.9070588 10061930
0.2165551 -0.22276814 -1.9070588 9140578
0.22201188 -0.22492115 -1.9254902 6772554
0.2253757 -0.22492115 -1.9254902 5588539
0.22873951 -0.22492115 -1.9254902 5260089
0.23210333 -0.22492115 -1.9254902 5654589
0.23772111 -0.22707416 -1.9439216 5260604
0.24111712 -0.22707416 -1.9439216 4537395
0.24451314 -0.22707416 -1.9439216 4997690
0.25025972 -0.22922717 -1.9623529 4340530
0.25368793 -0.22922717 -1.9623529 4538164
0.25711615 -0.22922717 -1.9623529 4932665
0.26054436 -0.22922717 -1.9623529 4998199
0.26645194 -0.23138019 -1.9807843 5326650
0.26991235 -0.23138019 -1.9807843 7496782
0.27337277 -0.23138019 -1.9807843 9535331
0.27683318 -0.23138019 -1.9807843 11114103
0.28029359 -0.23138019 -1.9807843 11508861
0.28375401 -0.23138019 -1.9807843 11574653
0.28721442 -0.23138019 -1.9807843 11574651
0.29067484 -0.23138019 -1.9807843 11772289
0.29413525 -0.23138019 -1.9807843 12034949
0.29759567 -0.23138019 -1.9807843 12364169
0.30385744 -0.2335332 -1.9992157 12562319
0.30735005 -0.2335332 -1.9992157 12693649
0.31084267 -0.2335332 -1.9992157 12562317
0.31433528 -0.2335332 -1.9992157 12693391
0.31782789 -0.2335332 -1.9992157 12693391
0.32132051 -0.2335332 -1.9992157 12759441
0.32481312 -0.2335332 -1.9992157 12825234
0.32830574 -0.2335332 -1.9992157 12825746
0.33179835 -0.2335332 -1.9992157 12759441
0.33529096 -0.2335332 -1.9992157 12298376
0.33878358 -0.2335332 -1.9992157 12364683
0.34227619 -0.2335332 -1.9992157 12891286
0.34576881 -0.2335332 -1.9992157 12891284
0.34926142 -0.2335332 -1.9992157 12890770
0.35275404 -0.2335332 -1.9992157 12825234
0.35624665 -0.2335332 -1.9992157 13087894
0.35973926 -0.2335332 -1.9992157 13087894
0.36323188 -0.2335332 -1.9992157 13153944
0.36672449 -0.2335332 -1.9992157 13088406
0.37021711 -0.2335332 -1.9992157 13219739
0.37370972 -0.2335332 -1.9992157 13153945
0.37720234 -0.2335332 -1.9992157 13153944
0.38069495 -0.2335332 -1.9992157 13153944
0.38418756 -0.2335332 -1.9992157 13153944
0.38768018 -0.2335332 -1.9992157 13154200
0.39117279 -0.2335332 -1.9992157 13088406
0.39466541 -0.2335332 -1.9992157 13153944
0.39815802 -0.2335332 -1.9992157 13153944
0.40165063 -0.2335332 -1.9992157 13088406
0.40514325 -0.2335332 -1.9992157 13153944
0.40863586 -0.2335332 -1.9992157 12824978
0.41212848 -0.2335332 -1.9992157 12891284
0.41178936 -0.23138019 -1.9807843 12825746
0.41524977 -0.23138019 -1.9807843 12891284
0.41871019 -0.23138019 -1.9807843 12825234
0.4221706 -0.23138019 -1.9807843 12891284
0.42563101 -0.23138019 -1.9807843 12824978
0.42909143 -0.23138019 -1.9807843 12891284
0.43255184 -0.23138019 -1.9807843 12891284
0.43601226 -0.23138019 -1.9807843 12825236
0.43538334 -0.22922717 -1.9623529 12891284
0.43881156 -0.22922717 -1.9623529 12825490
0.44223977 -0.22922717 -1.9623529 12891284
0.44566799 -0.22922717 -1.9623529 12496015
0.4490962 -0.22922717 -1.9623529 12233096
0.45252442 -0.22922717 -1.9623529 11705984
0.45595263 -0.22922717 -1.9623529 8351579
0.45938085 -0.22922717 -1.9623529 6115906
0.45846214 -0.22707416 -1.9439216 4932147
0.46185815 -0.22707416 -1.9439216 5588793
0.46525417 -0.22707416 -1.9439216 7758411
0.46865018 -0.22707416 -1.9439216 10850159
0.4720462 -0.22707416 -1.9439216 12166533
0.47544222 -0.22707416 -1.9439216 11903107
0.47429811 -0.22492115 -1.9254902 11903363
0.47766192 -0.22492115 -1.9254902 11968901
0.48102574 -0.22492115 -1.9254902 11969157
0.48438956 -0.22492115 -1.9254902 11508347
0.48308445 -0.22276814 -1.9070588 10982006
0.48641607 -0.22276814 -1.9070588 9074527
0.48974768 -0.22276814 -1.9070588 9271134
0.48831378 -0.22061512 -1.8886275 10060389
0.4916132 -0.22061512 -1.8886275 11113331
0.49491261 -0.22061512 -1.8886275 11639677
0.49821203 -0.22061512 -1.8886275 11837570
0.49661713 -0.21846211 -1.8701961 11838082
0.49988435 -0.21846211 -1.8701961 11837313
0.50315157 -0.21846211 -1.8701961 11837570
0.50142787 -0.2163091 -1.8517647 11837569
0.50466289 -0.2163091 -1.8517647 11837826
0.50789791 -0.2163091 -1.8517647 11837312
0.51113292 -0.2163091 -1.8517647 11048567
0.50924823 -0.21415608 -1.8333333 8219990
0.51245105 -0.21415608 -1.8333333 8416852
0.51046975 -0.21200307 -1.814902 9732448
-0.34520566 -0.17490479 -1.52 14267962
-0.34255023 -0.17490479 -1.52 14596664
-0.34401633 -0.17702567 -1.5384314 14596662
-0.34132871 -0.17702567 -1.5384314 14662711
-0.33864108 -0.17702567 -1.5384314 14794554
-0.33997838 -0.17914655 -1.5568627 14860091
-0.33725856 -0.17914655 -1.5568627 14794553
-0.33453873 -0.17914655 -1.5568627 14926395
-0.3318189 -0.17914655 -1.5568627 14992445
-0.32909908 -0.17914655 -1.5568627 14992445
-0.33024319 -0.18126742 -1.5752941 15058494
-0.32749116 -0.18126742 -1.5752941 15058494
-0.32473913 -0.18126742 -1.5752941 15058495
-0.32198711 -0.18126742 -1.5752941 15124287
-0.31923508 -0.18126742 -1.5752941 15124287
-0.31648305 -0.18126742 -1.5752941 15058752
-0.31373103 -0.18126742 -1.5752941 15058752
-0.310979 -0.18126742 -1.5752941 15124546
-0.30822697 -0.18126742 -1.5752941 15058753
-0.30904909 -0.1833883 -1.5937255 15124546
-0.30626486 -0.1833883 -1.5937255 15124546
-0.30348063 -0.1833883 -1.5937255 15124546
-0.30069641 -0.1833883 -1.5937255 15058754
-0.29791218 -0.1833883 -1.5937255 15058497
-0.29512796 -0.1833883 -1.5937255 15124290
-0.29234373 -0.1833883 -1.5937255 15124291
-0.2895595 -0.1833883 -1.5937255 15124290
-0.28677528 -0.1833883 -1.5937255 15124290
-0.28399105 -0.1833883 -1.5937255 15058497
-0.28120683 -0.1833883 -1.5937255 15124290
-0.2784226 -0.1833883 -1.5937255 15058496
-0.27563837 -0.1833883 -1.5937255 14992192
-0.27285415 -0.1833883 -1.5937255 14992192
-0.27006992 -0.1833883 -1.5937255 14992448
-0.2672857 -0.1833883 -1.5937255 14992447
-0.26450147 -0.1833883 -1.5937255 14992191
-0.26171724 -0.1833883 -1.5937255 14992191
-0.25893302 -0.1833883 -1.5937255 14992191
-0.25614879 -0.1833883 -1.5937255 14860091
-0.25336457 -0.1833883 -1.5937255 14860603
-0.25058034 -0.1833883 -1.5937255 14728759
-0.24779611 -0.1833883 -1.5937255 14728504
-0.24501189 -0.1833883 -1.5937255 14728760
-0.24222766 -0.1833883 -1.5937255 14662452
-0.23944344 -0.1833883 -1.5937255 14596915
-0.23665921 -0.1833883 -1.5937255 14267436
-0.23387498 -0.1833883 -1.5937255 14201900
-0.23109076 -0.1833883 -1.5937255 14201900
-0.22830653 -0.1833883 -1.5937255 13806374
-0.22291415 -0.18126742 -1.5752941 13937446
-0.22016212 -0.18126742 -1.5752941 13344542
-0.2174101 -0.18126742 -1.5752941 13410591
-0.21465807 -0.18126742 -1.5752941 13081628
-0.21190604 -0.18126742 -1.5752941 13015580
-0.20915402 -0.18126742 -1.5752941 11897108
-0.20398703 -0.17914655 -1.5568627 10976019
-0.2012672 -0.17914655 -1.5568627 10975762
-0.19854738 -0.17914655 -1.5568627 9332243
-0.19350919 -0.17702567 -1.5384314 8740114
-0.19082156 -0.17702567 -1.5384314 6833939
-0.18587997 -0.17490479 -1.52 7228432
-0.18322454 -0.17490479 -1.52 3219980
-0.18056911 -0.17490479 -1.52 9791497
-0.17575632 -0.17278391 -1.5015686 6044935
-0.17313309 -0.17278391 -1.5015686 8542470
-0.17050986 -0.17278391 -1.5015686 7096071
-0.16788664 -0.17278391 -1.5015686 6898950
-0.16526341 -0.17278391 -1.5015686 9068552
-0.16264018 -0.17278391 -1.5015686 9069064
-0.16198112 -0.17490479 -1.52 9792012
-0.15932569 -0.17490479 -1.52 10055181
-0.15667026 -0.17490479 -1.52 10778381
-0.1558824 -0.17702567 -1.5384314 10909966
-0.15319477 -0.17702567 -1.5384314 11041551
-0.15050715 -0.17702567 -1.5384314 11633679
-0.14781952 -0.17702567 -1.5384314 11567886
-0.14687066 -0.17914655 -1.5568627 11831056
-0.14415084 -0.17914655 -1.5568627 12028433
-0.14143101 -0.17914655 -1.5568627 12094225
-0.13871118 -0.17914655 -1.5568627 12093969
-0.13760133 -0.18126742 -1.5752941 11962641
-0.1348493 -0.18126742 -1.5752941 12686357
-0.13209727 -0.18126742 -1.5752941 12686612
-0.12934525 -0.18126742 -1.5752941 12686614
-0.1280744 -0.1833883 -1.5937255 13015577
-0.12529017 -0.1833883 -1.5937255 12884761
-0.12250594 -0.1833883 -1.5937255 13147419
-0.1211063 -0.18550918 -1.6121569 13476897
-0.11828987 -0.18550918 -1.6121569 13542945
-0.11547344 -0.18550918 -1.6121569 13871911
-0.113945 -0.18763006 -1.6305882 14333228
-0.11109637 -0.18763006 -1.6305882 14201644
-0.10824775 -0.18763006 -1.6305882 14333487
-0.10539912 -0.18763006 -1.6305882 14662964
-0.1025505 -0.18763006 -1.6305882 14728758
-0.10082885 -0.18975094 -1.6490196 14662708
-0.09794803 -0.18975094 -1.6490196 14860601
-0.095067205 -0.18975094 -1.6490196 14860601
-0.092186381 -0.18975094 -1.6490196 14926651
-0.089305556 -0.18975094 -1.6490196 15058495
-0.086424732 -0.18975094 -1.6490196 15057982
-0.083543908 -0.18975094 -1.6490196 14992448
-0.080663083 -0.18975094 -1.6490196 14992191
-0.077782259 -0.18975094 -1.6490196 14926656
-0.07573862 -0.19187182 -1.667451 14926655
-0.072825597 -0.19187182 -1.667451 14926656
-0.069912573 -0.19187182 -1.667451 14926398
-0.066999549 -0.19187182 -1.667451 14926398
-0.064086525 -0.19187182 -1.667451 14596919
-0.060497312 -0.18975094 -1.6490196 14662968
-0.057616488 -0.18975094 -1.6490196 14728504
-0.054735664 -0.18975094 -1.6490196 14399795
-0.051854839 -0.18975094 -1.6490196 14465588
-0.048974015 -0.18975094 -1.6490196 14201644
-0.04609319 -0.18975094 -1.6490196 14201388
-0.043212366 -0.18975094 -1.6490196 13806117
-0.040331542 -0.18975094 -1.6490196 13937702
-0.037450717 -0.18975094 -1.6490196 13476640
-0.034569893 -0.18975094 -1.6490196 13410847
-0.031689068 -0.18975094 -1.6490196 12818711
-0.028486249 -0.18763006 -1.6305882 12884248
-0.025637624 -0.18763006 -1.6305882 12423445
-0.022788999 -0.18763006 -1.6305882 12159764
-0.019940375 -0.18763006 -1.6305882 12028178
-0.01709175 -0.18763006 -1.6305882 11173392
-0.014243125 -0.18763006 -1.6305882 11107600
-0.011265702 -0.18550918 -1.6121569 10120719
-0.0084492764 -0.18550918 -1.6121569 10120976
-0.0056328509 -0.18550918 -1.6121569 9594641
-0.002784226 -0.1833883 -1.5937255 9003537
-1.9984014e-15 -0.1833883 -1.5937255 8476689
0.0027520265 -0.18126742 -1.5752941 6965266
0.0055040531 -0.18126742 -1.5752941 5585428
0.0081594812 -0.17914655 -1.5568627 3023381
0.01075051 -0.17702567 -1.5384314 3220762
0.18830521 -0.20671797 -1.7964706 10324847
0.19537196 -0.21095972 -1.8333333 10061932
0.20256751 -0.21520148 -1.8701961 9864551
0.20989186 -0.21944324 -1.9070588 11114618
0.21322348 -0.21944324 -1.9070588 10456175
0.21864806 -0.22156412 -1.9254902 8021844
0.22201188 -0.22156412 -1.9254902 6377794
0.2253757 -0.22156412 -1.9254902 5983808
0.22873951 -0.22156412 -1.9254902 4537396
0.23432509 -0.22368499 -1.9439216 5194553
0.23772111 -0.22368499 -1.9439216 4997433
0.24111712 -0.22368499 -1.9439216 4734774
0.2468315 -0.22580587 -1.9623529 4406066
0.25025972 -0.22580587 -1.9623529 4669494
